-468.2171285287236 -193.30560410585127 1290.4294300187946 0.888324621211018 0.40463129211217336 0.21714715009397276
-428.9498848591353 -205.79785907332976 1113.1120643845368 0.0360755756193492 -0.7508913795090596 -0.659439678077316
-369.42624308148083 -208.13964471284544 1179.9711179784897 -0.30019815902585717 -0.9086788687984482 -0.290144410107551
-292.3424719618316 -205.27519511292152 1100.9199076671846 -0.09898741862760864 -0.7544068410384345 -0.6489004616640774
-216.18216786226293 -206.050039452407 1105.7645257544318 -0.11293298134962115 -0.7416809458923206 -0.6611773712278413
-140.46029994053103 -207.1027684789851 1132.3301011614824 0.0010413516782329718 -0.8988040033999539 -0.438349494192588
-79.95367335729735 -191.95945159358382 1054.7006691974652 -0.24466240728776897 0.5069946620685541 -0.8264966540126745
2.3557963584684583 -207.0812744510184 1121.9739482508498 -0.001749096942518935 -0.8771954601436466 -0.4801302587457513
67.13581093103092 -206.4610767456161 1089.6951062072915 -0.06120523702871412 -0.7988379522193223 -0.5984244689635432
149.6401675475997 -205.38449645410233 1115.8790159411908 0.28846194964307154 -0.7833415125959465 -0.5506049202940457
214.2781825454238 -204.61426484543426 1076.6123989982284 0.10200975163926504 -0.6896331688255828 -0.7169380050088574
290.258544717617 -208.36752637623488 1173.8598494448497 -0.0021743890662177085 -0.9471780715373719 -0.3207007527757517
361.4990524430587 -188.9714319365899 1123.4607799441362 0.044686587985323885 0.7967185949645778 -0.6026961002793191
442.40626402428364 -204.12076614601716 1114.9348466356532 0.36784151547770905 -0.5916625969824283 -0.7173757668217341
495.78450507421627 -204.46089112594083 1103.2382675610554 -0.025253332893363054 -0.6316912269185 -0.7748086621947237
494.26882666455543 -187.79537832495427 1097.9207468958753 -0.08124249754251153 -0.6874782353305386 -0.7216462655206243
430.8008580978666 -186.9320631573906 1076.575730069526 0.06709828796075179 -0.6439478768943846 -0.7621213496523703
358.9515017445873 -188.9585977876213 1117.000098016108 -0.042149109763262096 -0.8269458943136735 -0.5606995099194604
292.7201725422544 -184.25643700561855 1057.0227869417588 0.11239294029557044 -0.5757190184619968 -0.809886065291206
216.45562839866176 -182.75541028603914 1040.692892221463 0.1443973694759962 -0.5848497629229291 -0.7981855388926852
142.14231004168607 -189.00025666803344 1103.808395902346 0.031459871767496386 -0.8520537805759695 -0.5225080204882698
64.22457623020716 -182.87069145729419 1010.8951084846916 -0.17419724336755657 -0.3089952816510223 -0.9349744575765424
-8.384297147805011 -178.71337758000075 1003.9837401157013 -0.24206793926174228 -0.018584544500175475 -0.970081299421494
-66.9755998220032 -167.65826753825309 1176.2347722653205 0.10167116685196619 0.9882500687085531 -0.1141261386733975
-140.57601465722706 -190.87410312375573 1099.5071269200444 -0.0025212868691999943 -0.843282692243791 -0.5374643653997786
-219.60781086853927 -185.78950367872065 1094.4543338968053 -0.08450271896975177 -0.773832303250742 -0.6277283305159731
-291.1037713886406 -185.1650910178149 1044.2060307310107 -0.07348783357129882 -0.623989147738178 -0.7779698463449463
-362.57673295623835 -185.92304599752484 1107.3252174196043 -0.15436385494241203 -0.8380045033178461 -0.5233739129019785
-428.3429310251539 -184.7396596035379 1058.168754321 0.023259884566596424 -0.5871330137366904 -0.8091562283949991
-512.6116410438588 -185.66009033790422 1075.2318770296924 -0.4185098506255727 -0.6089239120825048 -0.673840614851538
-503.2055390595781 -168.04577691122887 1067.2091226796583 -0.12800918287278723 -0.7036166673341885 -0.6989543866017089
-424.1181370349539 -165.50459005350123 1040.7395539965792 0.1597095513606402 -0.5939999496508716 -0.7884522300171044
-355.86485138173396 -164.50248323634824 1023.5667559001178 0.12760733461241094 -0.46706582099110183 -0.8749662204994111
-290.08378258288695 -163.93242996706644 1023.7561189189015 -0.06517537641308453 -0.6020824060957112 -0.795769405405493
-219.02678010469455 -165.48667511444478 1041.3211209739852 -0.005875377267598945 -0.6660383106515009 -0.7458943951300736
-145.49168631508053 -164.3746063783169 1014.6783787071984 -0.045215781955152134 -0.6344891355265365 -0.7716081064640085
-70.65168170726534 -161.23583464937488 1037.978973450864 0.0015580722943307314 -0.6556018692101593 -0.75510513274568
3.1644213994666566 -163.91065575543544 1042.3764646814807 0.034650884681252596 -0.67921851304148 -0.7331176765925969
64.81431785476732 -165.39770188223034 1018.7407262795057 -0.16592521522929743 -0.5459902445513339 -0.8211963686024714
139.0450913905887 -162.88647231223996 1021.5311059142232 -0.04984400586830972 -0.5917290877033707 -0.8045944704288842
215.21085287464675 -164.62278408756725 1036.7935552057806 0.13525103058567897 -0.6778182366104518 -0.722682223971096
290.7209066225866 -164.48519582510565 1046.2342392231064 0.05944717292770164 -0.671265992123503 -0.7388288038844675
364.1064366856227 -164.45337488943252 1044.630784829379 0.09433479706049343 -0.5594239529356005 -0.8234960758531048
437.56372286295584 -165.27478799822129 1085.039440876234 0.23145945626598136 -0.7062541162922067 -0.6690527956188288
499.60870822663594 -167.02430951900055 1077.6193033773982 0.07801746066586088 -0.640298938057457 -0.764153483113009
513.4189818174281 -144.3591730264571 1078.822975204228 0.4759593768734697 -0.6000809094784681 -0.6429351239788607
432.67559109226147 -144.7862063054312 1040.3398770032388 0.06099822817251072 -0.6404775343895602 -0.7655506149838063
362.7375369125447 -143.1229226370207 1026.6711641974116 0.11489471199957338 -0.6130510440164983 -0.7816441790129421
289.098109822089 -142.72526172368222 1026.8096101846604 0.06968670939702715 -0.6734378153798788 -0.735951949076698
214.23343356642425 -141.52191354962147 1025.5873130598497 0.12914640018318882 -0.6404499692863023 -0.7570634347007509
143.6344309740931 -142.4773550148784 1002.9950693123949 0.01933942727035619 -0.622319173185716 -0.7825246534380252
72.78680028200054 -142.07361031727478 1008.5459125894935 0.01432382126396104 -0.6529443416637164 -0.7572704370525327
0.0673510065360361 -145.26637090083335 1010.6350182433471 0.020421231729942344 -0.6640323629349412 -0.7474249087832641
-69.84453335913554 -146.06138951342214 1022.3020047466107 0.005670904649896258 -0.7224116555402579 -0.6914399762669464
-140.08733118984543 -141.06288861787107 1021.9507733803621 -0.01900632181949379 -0.6934581944775033 -0.7202461330981894
-211.50612467906092 -140.89057455576219 1057.408759646531 0.022233730161506864 -0.8394666307873614 -0.5429562017673445
-289.5160236592751 -141.45025325554386 1032.257223590092 -0.05653970711984611 -0.6185432988899341 -0.7837138820495395
-366.20466812248645 -144.97476317300232 1012.3312395570431 -0.18776313208697548 -0.49665757841480634 -0.8473938022147846
-427.62204746602475 -145.89786205574083 1015.8120759210137 0.02613735817160346 -0.5491125177104058 -0.8353396203949316
-513.2842810894534 -144.01896672468087 1033.0508948015365 -0.45274055350958303 -0.432461450192731 -0.7797455259923177
-466.3808212339664 -114.89609024809394 1115.515688000297 0.9404613579972949 -0.14067953768039013 -0.3094215599985165
-433.1185357490456 -117.17539291299634 1004.6278922030494 -0.106671914234549 -0.5609321671498275 -0.8209605389847524
-357.16217206421516 -122.04518398788565 1002.0933615385132 0.03972818674429032 -0.6059196955866094 -0.7945331923074338
-285.0073651581875 -125.45106113136787 1004.3753352753247 -0.01687662529172264 -0.5887714950086066 -0.8081233236233768
-219.64415860608023 -120.82410650703295 1004.7512857086556 -0.05069179062405615 -0.6580755569904385 -0.751243571456722
-140.036847174722 -118.96774338404855 996.9246454376752 0.004326038307211937 -0.64758990347916 -0.7619767728116237
-71.25232334277045 -119.2843463465668 995.8629663454226 -0.049463319958619544 -0.6407731922561576 -0.7661351682728869
-0.3710797290350534 -123.65024247920556 996.2983373327153 0.05907725808766585 -0.6771081389580238 -0.7335083133364234
70.24015591543444 -118.137237827202 997.0253895052358 0.010268127553891447 -0.6499903919910319 -0.7598730524738208
143.99874532174542 -122.2621073580815 986.1500539513179 0.033033458894551365 -0.6195652921255356 -0.7842497302434104
212.1640514993083 -117.19402404384597 1003.7447908330219 0.06626380961928131 -0.6771817289921067 -0.7328260458348902
287.90262673848537 -123.3785693085743 982.5125648347048 0.07453384552665823 -0.5091622485826356 -0.8574371758264758
363.0927901842616 -123.49466354964301 1026.1618453640308 0.09641610133789802 -0.6778068870822181 -0.7288907731798459
429.7756577024065 -120.86227072493364 1031.7376999099881 0.024597995998848887 -0.6109182006196213 -0.7913115004500597
503.9370694721382 -118.06078906678967 1037.4535627572538 0.19167648746393315 -0.5970317225367212 -0.7789821862137312
503.8292102206514 -97.35215267331388 1016.2355580872697 0.17946660739962988 -0.5671521773216396 -0.8038222095636514
427.61894524745196 -98.7626846403587 1012.6811721803354 0.046513986122896166 -0.5681720863384997 -0.8215941390983236
365.7666924227133 -98.33538344652466 1000.1822008332051 0.15895418128631048 -0.5798192347522196 -0.7990889958339743
286.8934986859059 -101.57812406600354 975.3842312068879 0.09217593169022434 -0.5567074366429171 -0.8255788439655607
216.62683434025138 -100.70552162491566 964.8454208740359 0.08981520811746894 -0.541679698088603 -0.8357728956298209
143.51233759236635 -96.51079210330163 966.3047953154066 0.04379484283818393 -0.637896286512208 -0.7688760234229662
72.21012169989065 -100.14881732724362 941.9370537227458 -0.005461183961091315 -0.6222308830284649 -0.7828147313862712
-0.8493903306185162 -98.24266082639646 975.2259474637276 0.005074094977356905 -0.6498795687463288 -0.760020262681362
-69.69851603808563 -97.85510536051726 974.7498332411635 0.001830133782382304 -0.6465129298061097 -0.7629008337941824
-137.0132535498347 -97.5650042633575 964.9929802643694 0.10412738030474115 -0.5760078232388244 -0.8107850986781535
-193.9230419136538 -93.67193212755032 969.6529014089118 0.49222412989803105 -0.3661055272903617 -0.7897354929554404
-289.0991662028714 -102.04060971698715 995.2685277878604 -0.07890149698912965 -0.59659112748719 -0.7986573610606977
-361.17462437727033 -97.84135889223347 992.1363826570985 -0.04158270310635363 -0.6144385703544254 -0.7878680867145076
-431.6432997193783 -99.1429424266031 993.3596141563005 -0.11716836015036067 -0.577131888728369 -0.8082019292184974
-508.8163747006871 -95.74111175093435 1001.4345372256237 -0.327391244478759 -0.5442869262206333 -0.7723773138718824
-507.2156483502493 -78.84820072573389 992.5025562875753 -0.26536861436190556 -0.5190799728219406 -0.8124872185621235
-409.0954698392331 -71.13061634365451 975.3432056226563 0.6325384377380877 -0.09041140016193779 -0.7692339718867188
-327.98395280043377 -71.36070809576736 1068.8475963454432 0.9501806766943574 -0.0950243323768299 -0.2968620182727842
-303.97167951672765 -75.1821145818711 969.9154608885049 -0.42193215470581125 -0.5151925800498977 -0.746022695557475
-215.37502021255276 -74.22874493181027 944.1722461653046 -0.05323849451073824 -0.6182977061103616 -0.7841387691734767
-141.92648868131982 -77.71385014367529 962.8374159357294 -0.027593932000746998 -0.6296818171639066 -0.7763629203213525
-72.20991904849365 -76.6794994735497 948.758240914715 -0.06209743619337066 -0.6109774019059805 -0.7892087954264246
-5.184331271705736 -79.14782391501865 1007.1717472407587 -0.14596059090971777 -0.8557981580845159 -0.4962912637962067
70.8716916902124 -77.42394665425749 974.940703787992 0.02323955919826241 -0.7403257585519445 -0.6718464810600396
142.9200025461001 -78.59308306239875 958.3100797250244 0.05551873067651086 -0.6060985073584296 -0.7934496013748781
212.84891190838079 -79.02999334774765 970.3743683047862 0.07712327067036893 -0.6170593881653416 -0.7831281584760692
290.0793335333231 -73.90436292919827 958.7760866252881 0.07329463299637982 -0.5776046058114971 -0.8130195668735599
368.4749409279777 -73.84129949255914 962.2013075321233 0.24148936826706832 -0.37648800716429565 -0.8943934623393831
430.2054395173748 -78.00644389706196 1005.1110022169064 0.007215609966194692 -0.6326001060042091 -0.7744449889154678
499.7277871426388 -75.79881798453317 990.9517901588421 0.05242122781170915 -0.5282148581692707 -0.8474910492057897
503.77880092076225 -55.673694873316734 982.408802222265 0.19016792404534688 -0.5196349499781286 -0.8329559888886753
426.62665977116194 -57.4469832953434 1024.7774385518353 -0.10483543157014918 -0.8435538814894948 -0.5267128072408228
362.99251379940796 -54.7544990685736 984.309684412533 0.14055263966916695 -0.6230483325487471 -0.7694515779373353
291.77057675972713 -55.80295966455561 955.7663053611659 0.05730655779523352 -0.6330723772428573 -0.7719684731941706
213.53015754266906 -57.18990744708676 937.4001187869868 0.08094192276612139 -0.5269239106701016 -0.8460494060650655
141.37280593390523 -55.42104661635742 928.9034259099628 0.0217214764332382 -0.5377368593933842 -0.842832870450186
71.56962592456544 -55.907143730210294 926.4286877818823 0.050849863291028835 -0.5753053594115317 -0.8163565610905887
-0.23452397333582922 -56.646889862094945 934.3795197993225 0.0048014640918599884 -0.632369040641825 -0.7746524010033872
-70.13170801223345 -55.84790103539719 926.2072772077704 0.010068142528886374 -0.5857716336700249 -0.8104136139611476
-141.67536275614367 -54.914558147311354 930.6498357109981 -0.03293194781877714 -0.6016895987166526 -0.7980508214450097
-211.89667489570573 -59.70847246502816 952.4911142438874 -0.01817635412615863 -0.6407379885714598 -0.7675444287805628
-292.9444471731148 -56.87153185308626 943.2796327375485 -0.10300802589014196 -0.5691557679189372 -0.8157518363122579
-361.57249807870676 -55.84255845128672 948.6810583176722 -0.06723753417268415 -0.5968311094851918 -0.7995447084116386
-432.2614545495176 -57.33646636302677 959.2068717374257 -0.08173109813450223 -0.6027731814978375 -0.7937156413128718
-509.0532674121552 -55.35755011855574 972.3810491965752 -0.35976890471664114 -0.4939069554192944 -0.7915947540171244
-516.4473257999957 -32.52895132264919 970.3995931682673 -0.5699012608235081 -0.34559986975846907 -0.7455020341586635
-426.21691003197026 -30.52480497386929 902.2150178808997 0.11488129915741015 -0.16650827784533664 -0.9793249105955009
-359.97976869292404 -32.59520994980587 925.2436312829209 -0.05272077496811032 -0.5570827367904652 -0.8287818435853957
-290.15083886065497 -37.04698031602857 930.7418313408272 -0.08027213725776845 -0.5574942387733522 -0.8262908432958643
-210.5070796328693 -36.968939203705276 924.9363460729711 -0.01875869190655995 -0.5907749813327917 -0.8066182696351443
-139.19869454554228 -39.54267119306292 1018.8474310633082 0.042263364124077545 -0.9528882251274676 -0.30036284468345936
-69.58805382969503 -36.02343334832831 918.4390124201776 0.006045416369049166 -0.5992956677134121 -0.8005049378991116
7.804039691858454 -37.11803285664514 925.016361843587 0.2518417595869748 -0.5936273505893792 -0.7643181907820659
72.26974920914216 -35.16286154234268 918.3604141961348 0.0574587824251601 -0.5994489741026932 -0.7983479290193258
143.01072814948265 -37.5071099162682 922.8043361223203 0.07690768546679627 -0.5678543313531792 -0.8195283193883991
196.09190977911896 -36.639811621658836 960.4099934763926 -0.41558234229344115 -0.6460427327247784 -0.6402500326180371
284.39183264549365 -34.15888553729821 926.5811876080063 0.08222260616047905 -0.5706108454506789 -0.8170940619599681
361.9599365100259 -36.28843672652228 936.5836882632555 0.12330952730195019 -0.5751069695852825 -0.8087315586837222
429.80825010614603 -35.57121877574981 962.0175724408134 -0.015687767905635162 -0.6207998281104047 -0.783812137795933
505.623018087406 -35.19233779583021 962.9972051742523 0.24233196616281127 -0.5000260211220243 -0.8314139741287386
506.65176109639515 -14.0863921767387 953.0289974088367 0.25831962828695865 -0.4304611204358444 -0.8648550129558162
435.2907522186134 -15.25887199307644 941.2244943926037 0.16327742777413404 -0.5396148626661263 -0.8259275280369823
364.69523384983154 -14.720453876291703 916.7866539521989 0.13796337118766563 -0.4967348536392917 -0.8568667302390062
293.05089018332075 -12.489914748808527 914.251281626176 0.11523542460228893 -0.5540880442156048 -0.8244435918691201
213.5784283786428 -10.6730283659956 911.1344449113525 0.06864591638718974 -0.5619354560767332 -0.8243277754432374
155.97662466318556 -14.285414033783034 910.7250656446031 0.48135047365471473 -0.380933601959952 -0.7894246717769838
72.02964645226372 -14.007340575712238 901.7613203240237 0.036202557627274166 -0.6052084865188698 -0.7952433983798816
0.24030260076488258 -15.056131428657883 893.4505600170141 0.015077083923144654 -0.5561469522472561 -0.83094719991493
-72.54115668981329 -11.985285033458542 892.1000541774711 -0.007960375380526899 -0.5938996702149968 -0.804499729112645
-140.73280965692896 -14.324662766231604 896.4267935299531 -0.029464189675599776 -0.5652897542268857 -0.8243660323502344
-212.99428458719214 -15.60499927378553 898.4089544770954 -0.046434139486631915 -0.5734048450337774 -0.8179552276145228
-290.6193419938046 -16.55445052950179 920.8238727124578 -0.09553235868665759 -0.5556930292895578 -0.8258806364377109
-361.60356868939493 -13.190991150281995 912.959365436853 -0.04725293766890431 -0.543615527953737 -0.8380031728157349
-432.46957016269516 -15.960053072726515 922.8612592882024 -0.10043084964633711 -0.5506181890575387 -0.8286937035589876
-515.8144289287858 -11.69869170342177 952.4240460550578 -0.56123144162796 -0.2694219236547386 -0.7825797697247111
-524.980723598728 10.185156981319828 1012.1803970823194 -0.8444154315468401 -0.29956557279534407 -0.4440980145884029
-435.241140377284 8.676878910532313 895.0523036412224 -0.21790742821439926 -0.4318262992409295 -0.8752384817938877
-361.98662283984135 3.8942378293778193 907.6453825001311 -0.05658769866199123 -0.5796854112183796 -0.8128730874993452
-292.0917041620064 6.687821693789428 896.1991688744216 -0.08978129137409353 -0.562286657261325 -0.8220541556278913
-211.03521738577373 11.112948233892032 891.0562869954432 -0.04391127576186791 -0.5489232342206597 -0.8347185650227842
-143.06682589683345 4.7563053488820835 881.7475225345775 -0.08615372455645459 -0.5274405711109588 -0.8452123873271122
-70.15247791210163 4.728330768675965 879.8842547598807 -0.008330136288841885 -0.5322778640396428 -0.8465287262005967
0.1776626936142423 7.032036030239106 881.5487289887758 -0.0029605939511403137 -0.5901935378373458 -0.8072563550561208
73.20779065684785 0.39925581916491737 979.911478871079 0.09621504796155056 -0.9337717452138341 -0.34469260564460463
143.91371942459085 11.05870530075246 890.7637678102292 0.062172472688548475 -0.5525146706862246 -0.8311811609488539
212.9161330963027 8.42507825909702 882.9213655896258 0.08868379064273682 -0.5323863812560193 -0.8418431720518708
293.6458875225638 9.1811444018849 893.4900154897991 0.12582890418872147 -0.5316739735077052 -0.8375499225510044
359.258621495773 6.865902854396524 911.6989715027764 0.08935866938610366 -0.5328077733807597 -0.8415051424861181
433.82844473597146 5.503467154745272 914.7796934717246 0.1422311317394077 -0.46369965987911765 -0.8745015326413773
509.49916212782995 7.714191862443546 936.1221246829888 0.3376483136682913 -0.38398374404355684 -0.8593893765850561
507.9928993236053 34.99870839219177 928.814540661524 0.3114116140104662 -0.356356429157174 -0.8809272966923799
442.8390553192247 31.815794996846066 894.4056931965274 0.3080851761959439 -0.22662773116702928 -0.923971534017363
363.62292853946224 24.7774445391234 900.1569956402345 0.12297917718740312 -0.5203280031964992 -0.8450650217988277
291.0977255410775 26.780476596108446 878.127119985556 0.10784800316138705 -0.4867390677781381 -0.8668644000722202
213.60122422380212 28.545595488508216 871.5360260611949 0.09150747322506718 -0.5065856525522441 -0.8573198696940254
141.42216361437232 28.26069450198633 863.8840193260186 0.06278600452869099 -0.5220840407621772 -0.850579903369907
70.55959122060865 27.062639625730235 862.5367571308593 0.026900775278752957 -0.5215995896853262 -0.852766214345703
2.0178863899070874 34.869485272121494 852.3192681623601 0.04987944118945228 -0.46746424690475424 -0.8826036591881992
-70.51769809573322 23.415170755101606 905.2171644140205 -0.02002267048928101 -0.7721587101489619 -0.6351141779298971
-142.53630082240647 31.995591616826424 862.9594754119423 -0.060659406232688694 -0.5063317923280597 -0.8602026229402885
-218.20015367814597 28.933250589620172 859.6376961296726 -0.05678368966410659 -0.5124935442466266 -0.8568115193516374
-284.2159338507204 34.2724899035971 875.8337570578315 -0.09389956577571222 -0.4941668275441829 -0.8642812147108432
-361.55192926118553 31.52135532153317 887.9218006109672 -0.07019146216685289 -0.5194042461908899 -0.8516409969451639
-440.202007950644 29.271603041937034 884.1089246025454 -0.26252844807787307 -0.3740961725255297 -0.8894553769872734
-511.7290055550358 32.84200089050774 925.8836602205699 -0.3937624708412776 -0.34851383051208995 -0.8505816988971502
-509.1563630484342 54.02727447388924 908.6119730331218 -0.32435987637148495 -0.32882802164691965 -0.8869401348343912
-438.28708822942997 55.488740360481216 875.8630630053808 -0.24605532147091302 -0.32474480586752363 -0.9132346849730961
-361.61432268148195 52.366465144351565 874.5445822963304 -0.10234406805132368 -0.48719210119401973 -0.8672770885183478
-292.8317902163525 53.58704934670861 859.2081547644831 -0.0973764249693642 -0.5111472115607857 -0.8539592261775847
-212.1023215505058 54.27742680091098 850.004860484006 -0.06459134920850781 -0.4497305127947001 -0.8908256975799703
-142.91513689527582 53.33095258424823 850.3597932711998 -0.04201822498186902 -0.4777304728851653 -0.8775010336440006
-70.2248389885616 54.6419361828467 843.8691643497517 -0.0004633253341603635 -0.5005557522274391 -0.8657041782512416
6.591172529800069 56.189277657616195 835.2568250944059 0.18933636291194048 -0.3625831220751061 -0.9125158745279704
72.07093488604757 51.620260068428806 852.0536917779851 0.04009751934792759 -0.4829460838741082 -0.8747315411100742
142.36608045320787 54.866472129892415 851.1364491114508 0.05771180476263605 -0.4559782909685655 -0.888117754442746
213.9470549768578 54.32885664901548 864.5069847254114 0.11313966423291681 -0.48446233873289557 -0.867465076372943
292.6304433165228 49.98039133862028 865.8562183936605 0.1290566625342969 -0.4621343712328435 -0.8773689080316972
364.702267943436 48.47148674816459 875.1050109646285 0.15299944611697577 -0.44078933839453666 -0.8844749451768577
434.951309786062 55.79445738072812 886.3480257334564 0.15768227482620084 -0.39520112788693623 -0.9049598713327173
510.37655930959045 50.62836273255565 920.2169766096915 0.40431262833083226 -0.3319269030973357 -0.8522651169515424
510.7097241756165 74.07064905371477 919.9959781679236 0.399696023132267 -0.2730986958174699 -0.8750201091603823
438.6678905865718 75.80667780502638 882.5543228088138 0.24040749451531063 -0.3176418180554137 -0.9172283859559311
364.4643581565683 75.36487095888363 861.2023929663504 0.1652462674429092 -0.3826675097485478 -0.9089880351682479
291.34461511768694 74.86135049905451 858.0066907981586 0.03897154797072751 -0.4954416616272966 -0.8677665460092066
213.55846526512434 75.81579124446105 841.3199569947255 0.11348208793527678 -0.43806776840834716 -0.8917502150263721
142.45419998264933 73.98481351899149 830.3597463091683 0.028095439547167856 -0.371016241580799 -0.928201268454159
71.95696426241886 75.463025464199 832.2002971823503 0.049506562077423814 -0.4399665242886216 -0.8966485140882485
2.7042476583742863 72.84627895127925 835.2523170490376 0.03997576160712858 -0.42621451896948515 -0.903738414754812
-71.67834379115448 73.3362329167958 834.6937922575485 -0.034524914105773796 -0.41298974960936585 -0.910081038712258
-142.16517469213395 75.95981228822063 829.0489220073317 -0.06158593363772065 -0.4081049268909892 -0.9108553899633414
-216.05013531888667 70.77643158418316 829.0044762837754 -0.0654560528003409 -0.3981600967543271 -0.9149776185811235
-290.579197884228 74.29501106191526 841.141458290721 -0.09123659202175913 -0.37124245050707316 -0.9240427085463954
-366.9087599493533 73.41473645245611 855.0056816785719 -0.18545511139802848 -0.3945345814456012 -0.8999715916071401
-438.61932438361146 77.20501979357468 865.8355558076171 -0.2662591945977278 -0.28364707101989844 -0.9212222209619143
-511.61987769556396 75.25746673824693 900.9957470678327 -0.41926720464768014 -0.22310890805089345 -0.8800212646608367
-510.4852741021697 96.94123560864975 889.8470494126611 -0.3769048630990922 -0.2683920956322016 -0.8865147529366951
-436.70799379730425 96.77027394937883 866.719660662159 -0.23668934153788324 -0.4273542935400933 -0.8725516966892055
-372.4815019795687 94.71758318095443 879.3705498149358 -0.4405030684180494 -0.5518011577744232 -0.708147250925321
-292.39271213000865 94.7003722072695 833.0737605408707 -0.08699059273941966 -0.3868479773331727 -0.9180311972956461
-212.00512573531563 95.08153605682807 825.1168087659556 -0.06566583578029105 -0.390598842606684 -0.9182159561702219
-150.81158910745023 98.68394315759073 811.7792774625333 -0.31293281865057376 -0.1417121228406074 -0.9391436126873333
-72.6044981088151 95.46896184012762 817.3762991014725 -0.07488110331516665 -0.42964345665715303 -0.899888504492638
2.163262657439154 96.00869917420506 812.6340764941715 0.06142765941673863 -0.3709234349247512 -0.9266296175291426
68.4225478279566 95.59391788792936 819.0154556275891 -0.05426579846958751 -0.42220916658264795 -0.9048727218620549
138.91531721204632 95.61625105774716 827.3176264953809 -0.03162110833100975 -0.48460410117584923 -0.8741618675230954
214.32752697361823 93.66158834765497 832.697484063664 0.10286037029296559 -0.3865545698972208 -0.9165125796816803
295.32467898334596 96.36600133334542 842.3982346244384 0.14998076303675992 -0.3366499661514577 -0.9296088268778077
369.14619250461266 97.58461671207476 851.0331349749703 0.2706667191560161 -0.21898952764567417 -0.9374343251251487
437.77147979313617 96.7332012108452 872.0398889012217 0.2276708912135327 -0.3032900382418342 -0.9253005554938906
510.19821601967135 97.10409121092603 904.1897482557257 0.37876374520853023 -0.23427366224495583 -0.8953512587213713
510.7059691653323 118.05004742667305 901.7838719137064 0.4024342928823779 -0.11938701965551003 -0.9076306404314672
434.2722556581436 114.48528456041413 886.3241078358938 0.1216085302104585 -0.5561605119306794 -0.822129460820531
366.840951452756 118.11560607277974 839.4805807283287 0.20997909655912372 -0.18806926462804785 -0.9594470963583555
292.37186554474886 118.42400663289985 816.1744114890585 0.09755874608114967 -0.1975414385554691 -0.9754279425547074
218.65524487400646 116.69750734127904 826.1545360598448 0.10840376988687511 -0.29532375151347573 -0.9492273197007766
139.77747365655293 113.87559955252485 834.8587755936244 -0.0010661485293174224 -0.5824007461590579 -0.8129011220318778
70.86457426444765 117.39048675692983 802.0857010721356 0.016042618253162905 -0.2411852291098357 -0.9703464946393217
1.0745619949099074 121.14339322267362 789.1749343928777 0.016004557378576426 -0.04233377043517711 -0.9989753280356116
-60.45412871493543 131.69374675203346 950.2231228548803 0.2883120113877635 0.938442190518492 -0.19026938572559882
-147.14167006870565 113.68233276398944 831.1802709906743 -0.22023410071901162 -0.5699029423299423 -0.7916486450466285
-212.44064208556188 117.33524181102496 806.9943794472185 -0.08056633285469554 -0.2790595362986832 -0.9568881027639075
-293.4194127117237 119.41097159858616 810.6852663564772 -0.09937577161097108 -0.2671269987915361 -0.958523668217614
-363.0268987590859 120.44778394063214 818.9072736594227 -0.15736983903849278 -0.2024585874452486 -0.9665636317028867
-439.8031712196596 117.53346565095414 852.9568098712921 -0.2961446411892268 -0.2239564263320595 -0.9285159506435401
-510.9726919316253 118.9651888280055 885.0699809543589 -0.4082779393363766 -0.057418187327014536 -0.9110500952282052
-520.0668169933882 141.75899349827048 926.063327401376 -0.6760916766049866 0.21750280332528016 -0.7039833629931197
-441.2089475016664 140.12521211015192 849.7584604349522 -0.3314597955412946 -0.0046878944125690195 -0.9434576978252389
-352.2797679819844 137.17732707933823 840.4390022091259 0.21712991619230942 -0.4658596359627146 -0.8578049889543705
-292.97790798015984 136.81043743424374 808.8338881110346 -0.10017089682612897 -0.29485954715910095 -0.950275559444827
-213.47959688372683 139.37784017249518 797.1954582669964 -0.11432632015537761 -0.0802370878975431 -0.990197708665018
-146.00080873055418 136.14578579368384 810.3213794182226 -0.19908115318409567 -0.46430992748432004 -0.8630081029088869
-64.14157418006073 141.7206790949586 787.7683122369143 0.17926900898519713 0.12463407973750891 -0.9758734388154283
4.833748467797203 135.9898233031859 815.0204094156546 0.15537457989276007 -0.48624505188656864 -0.859897952921727
70.69097882271194 140.7529992605902 788.430426284109 0.0180384255923574 -0.2417019170736752 -0.9701828685794547
147.76147141696123 144.6279555671363 796.0420125173096 0.14250202318862792 0.003008850647934576 -0.9897899374134524
220.07313460735986 135.07427473769198 806.5660853113395 0.07788020597000152 -0.34007038114215216 -0.9371695734433025
299.7704200592213 136.71603879765706 829.7340505678843 0.3017339843953952 -0.2946146097446494 -0.9067297471605787
367.9280319330197 140.8310780328201 834.806836438704 0.22408625097091733 0.08314826333370681 -0.9710158178064802
438.8353665993725 141.28248836511239 858.2513683256482 0.2673408244982049 0.053903971754151965 -0.9620931583717596
513.8399555076045 144.89346803896677 919.0453255895095 0.5088196286233537 0.13779623245283829 -0.8497733720524525
513.8002000073199 166.25216176165432 929.2503015085006 0.4452956195477654 0.3264586689558458 -0.8337484924574972
441.9140945423534 163.7875480310087 874.8479215878925 0.3512108431138868 0.21717838735235304 -0.9107603920605375
363.7750497379301 166.56147647503306 848.0278651214242 0.26997220279804235 0.1853464747498747 -0.9448606743928794
296.00088350242714 160.17434683879893 816.130292586107 0.2158590337081408 0.05181918491528179 -0.9750485370694649
227.89212477568532 162.58903000808357 826.462476765462 0.5416257295156769 0.07015003091608643 -0.8376876161726895
155.11769769938596 166.4613334750053 858.5879625291971 0.45326322742599373 0.5955764653930657 -0.6632051873540152
71.44141330190122 161.19769859115056 782.3079499557626 -0.015454793753664596 -0.034207488001998104 -0.9992952502211871
0.8575382478485138 161.59528980278074 795.8436139301439 0.03613175770604465 -0.08433767411384267 -0.9957819303492804
-75.65043788033054 163.18675411104212 787.2833559903136 -0.025887834722382708 0.04649056518360203 -0.9985832200484324
-145.3778609850279 163.22536991129493 788.2768572019422 -0.08030281129543222 0.04315888366839787 -0.9958357139902887
-215.38094932410408 160.91930462551025 796.6322185865514 -0.12559067819099426 0.0219673389190176 -0.9918389070672429
-296.96774277568363 159.69027058006145 804.7791334987004 -0.1985990125387205 -0.04592329639900414 -0.9790043325064983
-366.09082704674995 163.54907009027983 819.778174464135 -0.21306640171347543 0.17570416373085498 -0.9611091276793249
-441.28753185973017 163.97342107701434 858.2350346244571 -0.2938446876069413 0.15116215046905995 -0.9438248268777149
-507.87990560521695 156.3972288269636 882.6699270732056 -0.33815078682088 -0.4154005621589505 -0.8444503646339717
-501.20575904904683 191.49599050794092 885.1134082396527 -0.0994461853896968 0.5420628132207715 -0.8344329588017368
-442.5399168996906 193.67873667685723 876.2463413024451 -0.38985849944653234 0.3418604450374505 -0.8550682934877744
-370.36426770293406 190.72012145945772 840.334708483944 -0.3792754676451499 0.20037821907087586 -0.9033264575802796
-289.45618148019264 190.29111361062127 815.1558634544806 -0.10798172626580434 0.31110649157818415 -0.9442206827275973
-213.83565969327805 191.23064827740654 801.2185129508564 -0.12531189559526135 0.10231589255184881 -0.9868274352457175
-140.56013456924364 184.38407671762934 800.8157267925963 -0.0484103029390972 -0.3400890261810981 -0.9391463660370184
-73.50185764768885 196.19039617165134 830.5893017590993 -0.11290266472601367 0.6450149631756592 -0.7557834912045037
-0.19033235264931211 190.5231148568185 780.890849909767 -0.00511874947930441 0.04473554290818761 -0.9989857504511652
72.65036328862212 185.372945876408 804.8702620239076 0.0719780832946502 -0.394241806411052 -0.9161836898804623
142.59382599981618 189.9839447321317 796.8639126376694 0.08030176138631089 0.19094584662581468 -0.9783104368116529
215.35368399114932 185.06462352677832 817.4580795249574 0.16345544076257537 0.2652998877479059 -0.9502096023752132
289.99044150181584 185.63994483583303 837.7613144874842 0.19198775293946238 0.24160249601982473 -0.9511934275625786
364.6300091727125 184.8905610604234 844.1323087196517 0.22927731235832732 0.2359169213908112 -0.9443384564017415
442.0797858078711 188.8743967962051 885.4865443530425 0.3735290800070156 0.31480529116113704 -0.8725672782347871
493.22136430894386 198.79407730919888 1021.8979835790475 -0.12405075178428399 0.9263270202637819 -0.35571008210476246
503.95507363406824 214.64303143121418 991.5631230182729 0.18582464610313779 0.7645604200621381 -0.6171843849086354
440.9694632360233 209.93637033256033 896.2814385170117 0.34143862045717166 0.39775540074201726 -0.851592807414941
369.8741156737472 207.93424786627327 858.7690383145471 0.29596291375143696 0.16319797871909758 -0.9411548084272644
287.55467972052105 207.5341823521838 834.0171920100089 0.1723382972835191 0.17194844110190055 -0.9699140399499554
215.4852212226769 209.5706460564843 826.2372135671278 0.14555554334287 0.3540923644208994 -0.9238139321643611
144.97429024107834 210.3724601440319 820.5055248638635 0.16527423937678026 0.469229265103253 -0.8674723756806829
80.27131605396428 200.2486606738653 837.6906166890394 0.2909542422443226 -0.5576316152587859 -0.7774269165548033
0.46722618252532866 212.1343891798358 819.5069705147458 -0.02075538833472061 0.5808931680645913 -0.8137151474262708
-69.40498286238468 206.10038625222134 794.056016746642 -0.00854635744764315 0.022069181994326986 -0.9997199162667905
-142.44547796334803 207.3019473652191 801.0031067676478 -0.059314268494655216 0.16213395379430565 -0.9849844661617614
-216.1824946402296 209.4442226295048 815.1914526964038 -0.19057887370845403 0.33362035663731104 -0.9232427365179812
-291.5092754820019 209.71447963945545 825.2492998605464 -0.09556037274530006 0.33571601710628285 -0.9371035006972673
-368.77051933580793 209.36896337443363 851.5092198050036 -0.2735274853093019 0.34254089153344053 -0.8988039009749822
-437.92427180039533 210.1702134724909 872.5539397801551 -0.27907192217771215 0.3651621975525905 -0.8881303010992249
-501.71904545469806 204.66200595183463 880.473485888491 -0.1409587257728016 0.31702826604717765 -0.9378825705575449
